671622.250000 5790650.500000 0.01
671622.687500 5795721.500000 0.203555
671624.000000 5796802.000000 0.01
671624.375000 5793925.000000 0.01
671625.937500 5786339.000000 1.61418
671626.000000 5790698.500000 0.0121386
671626.562500 5792232.000000 12.1897
671626.625000 5795595.500000 0.383804
671627.937500 5790512.000000 0.013525
671628.375000 5783922.000000 0.01
671629.750000 5794272.000000 0.01
671630.062500 5787650.500000 2.36435
671630.437500 5785046.000000 0.181199
671630.500000 5790745.500000 0.01
671631.625000 5798173.000000 0.315588
671631.687500 5796337.000000 0.602154
671631.687500 5798249.500000 0.286178
671631.937500 5792338.000000 12.1255
671632.437500 5786178.000000 1.55484
671633.062500 5783765.500000 0.0130871
671633.125000 5798098.000000 0.329584
671633.312500 5785127.000000 0.574686
671633.312500 5794599.000000 0.010157
671633.312500 5798398.000000 0.328924
671633.437500 5784078.000000 0.0110716
671633.687500 5787403.500000 2.15767
671634.062500 5790793.000000 0.01
671634.750000 5793839.500000 0.01
671635.062500 5795838.500000 1.35512
671635.187500 5779581.000000 0.0102332
671635.375000 5793753.000000 1.16398
671635.750000 5791005.500000 3.32998
671636.687500 5779281.000000 0.0106089
671636.687500 5792417.000000 12.1878
671637.000000 5799212.000000 0.0117528
671637.250000 5790842.500000 1.11633
671637.312500 5794430.000000 0.0103006
671637.750000 5784149.000000 0.0103561
671637.937500 5790484.500000 0.01
671638.000000 5790954.000000 3.386
671638.312500 5783988.500000 0.0100933
671638.437500 5798024.000000 0.425791
671638.562500 5790546.000000 0.01
671638.687500 5792502.000000 12.1319
671638.875000 5786025.000000 1.50447
671638.875000 5790896.000000 2.42305
671639.000000 5796433.500000 0.319289
671639.562500 5791188.000000 8.20826
671639.625000 5798328.000000 0.253528
671640.000000 5785000.000000 0.151962
671640.000000 5785020.000000 0.242265
671640.000000 5785340.000000 1.12943
671640.000000 5785360.000000 1.09994
671640.000000 5789720.000000 0.811447
671640.000000 5789940.000000 0.11795
671640.000000 5789960.000000 0.096429
671640.000000 5789980.000000 0.0938968
671640.000000 5790000.000000 0.0550418
671640.000000 5790740.000000 0.01
671640.000000 5790760.000000 0.01
671640.000000 5790780.000000 0.0125984
671640.000000 5790800.000000 0.01
671640.000000 5790820.000000 0.290925
671640.000000 5793760.000000 1.05969
671640.000000 5793780.000000 0.01
671640.000000 5793820.000000 0.01
671640.000000 5795480.000000 0.268058
671640.000000 5795740.000000 0.445319
671640.000000 5795820.000000 1.27461
671640.000000 5796320.000000 0.597141
671640.000000 5796520.000000 0.184783
671640.000000 5798140.000000 0.248568
671640.000000 5798160.000000 0.423476
671640.000000 5798240.000000 0.232329
671640.000000 5798780.000000 0.209786
671640.000000 5798840.000000 0.167286
671640.000000 5798880.000000 0.232454
671640.000000 5799100.000000 0.029275
671640.000000 5799120.000000 0.0393772
671640.000000 5799370.500000 0.01
671640.312500 5792817.000000 9.27574
671640.312500 5796181.000000 3.76422
671640.625000 5784521.500000 0.017506
671640.875000 5783846.000000 0.01
671640.937500 5793656.000000 5.49273
671641.250000 5797950.500000 0.575049
671641.562500 5784115.000000 0.0168723
671641.812500 5784190.000000 0.01
671642.125000 5789338.000000 1.28209
671642.437500 5784037.000000 0.0102057
671642.562500 5792581.500000 13.3794
671643.500000 5793061.500000 10.0203
671644.000000 5779877.000000 0.01
671644.000000 5780177.000000 0.0101813
671644.000000 5780477.000000 0.0105837
671644.000000 5780777.000000 0.010208
671644.000000 5781077.000000 0.0100377
671644.000000 5781377.000000 0.0101625
671644.000000 5781677.000000 0.01
671644.000000 5781977.000000 0.01
671644.000000 5784227.000000 0.0100014
671644.000000 5784264.500000 0.0118937
671644.000000 5784302.000000 0.0149809
671644.000000 5784339.500000 0.0157613
671644.000000 5784377.000000 0.0467746
671644.000000 5784414.500000 0.0330964
671644.000000 5784452.000000 0.0194217
671644.000000 5784489.500000 0.010355
671644.000000 5784602.000000 0.01
671644.000000 5784639.500000 0.01
671644.000000 5784677.000000 0.0101246
671644.000000 5784714.500000 0.010354
671644.000000 5784752.000000 0.0138499
671644.000000 5784789.500000 0.0148075
671644.000000 5784827.000000 0.0139813
671644.000000 5785202.000000 0.985642
671644.000000 5785277.000000 1.38206
671644.000000 5785352.000000 1.25226
671644.000000 5785427.000000 1.06774
671644.000000 5789627.000000 1.03999
671644.000000 5789664.500000 0.921959
671644.000000 5789702.000000 0.801715
671644.000000 5789739.500000 0.738709
671644.000000 5789777.000000 0.624131
671644.000000 5791277.000000 8.65579
671644.000000 5793227.000000 8.92035
671644.000000 5793377.000000 6.56713
671644.000000 5793527.000000 5.60518
671644.000000 5797802.000000 0.498528
671644.000000 5797877.000000 0.616193
671644.000000 5798547.500000 0.306735
671644.000000 5799527.000000 0.0100448
671644.000000 5799677.000000 0.0110384
671644.000000 5799827.000000 0.0118461
671644.000000 5799977.000000 0.0106898
671644.000000 5800127.000000 0.010165
671644.000000 5800277.000000 0.0100732
671644.000000 5800577.000000 0.01
671644.062500 5784564.000000 0.01
671644.437500 5797498.500000 0.387103
671644.500000 5789816.000000 0.489959
671644.562500 5792670.500000 11.9869
671645.000000 5789854.500000 0.39379
671645.312500 5789589.000000 1.1113
671645.500000 5789893.000000 0.263947
671645.687500 5784865.500000 0.0113332
671646.000000 5789932.000000 0.159796
671646.375000 5797655.000000 0.322046
671646.437500 5784940.500000 0.0121635
671646.500000 5785503.500000 1.13484
671646.500000 5789970.500000 0.0930738
671646.812500 5785653.500000 1.2417
671647.000000 5790009.000000 0.0861832
671647.500000 5790048.000000 0.07446
671647.625000 5798698.000000 0.259353
671647.875000 5796513.000000 0.225645
671648.000000 5790086.500000 0.0112774
671648.062500 5800900.000000 0.0102017
671648.375000 5779025.000000 0.01
671648.562500 5795462.500000 0.309323
671649.125000 5790126.000000 0.01
671649.312500 5782586.000000 0.01
671649.312500 5789549.500000 1.17151
671649.750000 5782286.000000 0.01
671650.250000 5784905.000000 0.01
671650.250000 5790165.000000 0.01
671650.375000 5790450.500000 0.0101846
671650.875000 5798850.500000 0.303475
671650.937500 5789407.500000 1.18314
671651.375000 5790204.000000 0.01
671652.437500 5790243.000000 0.01
671652.875000 5797724.500000 0.275054
671653.500000 5792762.000000 9.73467
671653.625000 5799004.000000 0.0206614
671653.687500 5784982.000000 0.0771357
671654.375000 5790283.000000 0.0125673
671654.875000 5797415.000000 0.170811
671655.125000 5789510.000000 1.16647
671655.250000 5787075.000000 2.11171
671655.562500 5798470.500000 0.366625
671656.500000 5785583.000000 1.26484
671656.937500 5790323.500000 0.013577
671659.750000 5795954.500000 1.49052
671660.000000 5785000.000000 0.141864
671660.000000 5785020.000000 0.298494
671660.000000 5785220.000000 1.10907
671660.000000 5785260.000000 1.35347
671660.000000 5785280.000000 1.38151
671660.000000 5785360.000000 1.08515
671660.000000 5789720.000000 0.79336
671660.000000 5789740.000000 0.68482
671660.000000 5789980.000000 0.0638
671660.000000 5790040.000000 0.113805
671660.000000 5790060.000000 0.13658
671660.000000 5790740.000000 0.026411
671660.000000 5790760.000000 0.350856
671660.000000 5790780.000000 0.285376
671660.000000 5790800.000000 0.333047
671660.000000 5790820.000000 0.497961
671660.000000 5793760.000000 0.960059
671660.000000 5793780.000000 0.111354
671660.000000 5793800.000000 0.01
671660.000000 5794900.000000 0.0114268
671660.000000 5795840.000000 1.27675
671660.000000 5796520.000000 0.190397
671660.000000 5796580.000000 0.01
671660.000000 5797480.000000 0.337774
671660.000000 5798180.000000 0.291789
671660.000000 5798840.000000 0.259617
671660.000000 5798980.000000 0.179097
671660.000000 5799080.000000 0.100013
671660.250000 5790365.500000 0.01
671661.062500 5791067.000000 4.63995
671661.125000 5785735.500000 1.28755
671661.125000 5790509.000000 0.0138632
671661.375000 5798623.000000 0.217491
671661.562500 5797579.500000 0.252468
671662.312500 5796592.000000 0.01
671662.375000 5789467.000000 1.18354
671663.125000 5789119.000000 1.28033
671665.312500 5790408.500000 0.0129572
671666.625000 5801246.500000 0.0100893
671667.500000 5783689.000000 0.0103439
671667.500000 5798775.500000 0.15614
671668.125000 5790675.000000 0.01
671668.187500 5794756.000000 0.0100023
671668.437500 5790628.000000 0.01
671669.062500 5796682.000000 0.01
671669.125000 5799088.500000 0.137566
671669.437500 5798926.000000 0.157408
671670.375000 5790720.500000 0.0128641
671673.125000 5790767.500000 0.760443
671674.125000 5786753.500000 1.61706
671675.187500 5790478.000000 0.0131382
671676.125000 5790815.500000 0.790687
671676.250000 5790581.000000 0.0103643
671677.937500 5783948.000000 0.01
671678.562500 5789260.000000 1.31906
671678.625000 5784057.500000 0.0100702
671678.875000 5783898.000000 0.01
671679.437500 5784095.500000 0.0106971
671679.562500 5790866.000000 1.8835
671680.000000 5785320.000000 1.11585
671680.000000 5785420.000000 0.987091
671680.000000 5789740.000000 0.75427
671680.000000 5789960.000000 0.158285
671680.000000 5789980.000000 0.0820537
671680.000000 5790000.000000 0.112461
671680.000000 5790020.000000 0.133925
671680.000000 5790040.000000 0.123783
671680.000000 5790060.000000 0.152477
671680.000000 5790080.000000 0.117584
671680.000000 5790100.000000 0.0980847
671680.000000 5790720.000000 0.0124933
671680.000000 5790740.000000 0.446263
671680.000000 5790760.000000 0.720605
671680.000000 5790780.000000 0.710793
671680.000000 5790800.000000 0.740085
671680.000000 5790820.000000 0.994604
671680.000000 5793740.000000 2.21611
671680.000000 5793760.000000 1.35633
671680.000000 5795480.000000 0.0992893
671680.000000 5796500.000000 0.0962115
671680.000000 5796580.000000 0.01
671680.000000 5798220.000000 0.22952
671680.000000 5798840.000000 0.168358
671680.000000 5799080.000000 0.0653818
671680.125000 5784133.000000 0.0115721
671680.250000 5784170.000000 0.01
671680.312500 5784018.000000 0.01
671680.625000 5783794.500000 0.016849
671681.500000 5784208.000000 0.01
671681.500000 5784246.000000 0.0100641
671681.500000 5784283.000000 0.0138413
671681.500000 5784321.000000 0.0105787
671681.500000 5784358.000000 0.0105969
671681.500000 5784396.000000 0.0147541
671681.500000 5784433.000000 0.0166777
671681.500000 5784471.000000 0.01
671681.500000 5784583.000000 0.01
671681.500000 5784621.000000 0.0100538
671681.500000 5784658.000000 0.0101197
671681.500000 5784696.000000 0.0106531
671681.500000 5784733.000000 0.0102095
671681.500000 5789646.000000 0.997226
671681.500000 5789683.000000 0.894392
671681.500000 5789721.000000 0.736317
671681.500000 5789758.000000 0.695163
671681.500000 5789796.000000 0.563043
671682.000000 5789834.500000 0.351848
671682.500000 5789873.000000 0.422796
671682.562500 5784809.000000 0.0154961
671682.687500 5790922.500000 3.71118
671682.937500 5784771.500000 0.0106357
671682.937500 5789607.500000 1.11641
671683.000000 5789912.000000 0.269826
671683.062500 5790986.000000 3.33635
671683.500000 5789951.000000 0.167873
671683.625000 5783748.500000 0.01
671684.000000 5789989.000000 0.133449
671684.062500 5784847.000000 0.0157672
671684.125000 5784884.500000 0.0147777
671684.500000 5790028.000000 0.132823
671685.000000 5790067.000000 0.199573
671685.500000 5790105.000000 0.0908622
671686.125000 5789569.000000 1.08636
671686.625000 5790144.000000 0.0626175
671686.937500 5783984.000000 0.01
671687.750000 5790183.500000 0.01
671688.187500 5782906.000000 0.0101097
671688.437500 5796249.500000 1.04557
671688.875000 5790222.500000 0.01
671689.312500 5784513.500000 0.01
671689.562500 5790535.000000 0.0138867
671690.000000 5783861.500000 0.01
671690.500000 5783832.000000 0.0136739
671691.000000 5790261.500000 0.01
671692.000000 5784551.500000 0.0101561
671692.000000 5790445.000000 0.01
671692.937500 5789531.000000 1.24421
671693.500000 5790301.000000 0.0122299
671695.000000 5801639.500000 0.01
671696.062500 5790502.500000 0.01
671696.812500 5790340.500000 0.0140335
671698.000000 5796060.000000 2.00886
671698.187500 5789493.500000 1.19247
671700.000000 5784960.000000 0.0561513
671700.000000 5785000.000000 0.363806
671700.000000 5785180.000000 0.761041
671700.000000 5785220.000000 1.13953
671700.000000 5785300.000000 1.19506
671700.000000 5785340.000000 1.13969
671700.000000 5785380.000000 0.98496
671700.000000 5789740.000000 0.773853
671700.000000 5789760.000000 0.705469
671700.000000 5789780.000000 0.63298
671700.000000 5789800.000000 0.546958
671700.000000 5789960.000000 0.144513
671700.000000 5790000.000000 0.115911
671700.000000 5790080.000000 0.150912
671700.000000 5790100.000000 0.107577
671700.000000 5790140.000000 0.103448
671700.000000 5790160.000000 0.0805599
671700.000000 5790180.000000 0.01
671700.000000 5790360.000000 0.0100222
671700.000000 5790520.000000 0.01
671700.000000 5790540.000000 0.0268626
671700.000000 5790740.000000 0.728718
671700.000000 5790780.000000 0.918606
671700.000000 5790820.000000 1.60324
671700.000000 5793760.000000 1.57388
671700.000000 5793780.000000 0.883946
671700.000000 5793800.000000 0.0294145
671700.000000 5794940.000000 0.01
671700.000000 5795120.000000 0.0107053
671700.000000 5795300.000000 0.0102432
671700.000000 5795400.000000 0.0262623
671700.000000 5795460.000000 0.059345
671700.000000 5796300.000000 0.892041
671700.000000 5796500.000000 0.196071
671700.000000 5798200.000000 0.268912
671700.000000 5798760.000000 0.131166
671700.937500 5783587.000000 0.0131712
671702.562500 5790379.000000 0.01
671703.062500 5794912.500000 0.01
671703.812500 5792923.000000 8.7472
671705.187500 5793963.000000 0.01
671705.750000 5795056.500000 0.0101204
671705.875000 5794053.500000 0.01
671708.437500 5795200.500000 0.01
671708.562500 5793879.000000 0.01
671709.125000 5784934.500000 0.0673572
671709.875000 5798285.000000 0.335518
671709.937500 5790697.500000 0.01
671710.250000 5790654.500000 0.01
671711.187500 5795756.500000 0.753264
671711.687500 5784447.000000 0.0124499
671712.125000 5798212.500000 0.259541
671712.500000 5790743.000000 0.791498
671712.687500 5798136.500000 0.316831
671713.375000 5790611.000000 0.012415
671713.437500 5798061.500000 0.391292
671713.750000 5790477.000000 0.0109567
671714.437500 5795647.000000 0.987851
671714.562500 5785088.500000 0.504381
671714.875000 5793794.500000 0.469648
671715.000000 5790788.500000 1.24274
671715.062500 5793714.000000 4.0112
671715.125000 5790415.500000 0.01
671715.812500 5796483.000000 0.132219
671716.250000 5797988.000000 0.521677
671716.500000 5784486.500000 0.01
671716.687500 5785013.500000 0.37457
671717.562500 5796546.500000 0.0554959
671718.562500 5783925.500000 0.01
671718.750000 5783725.000000 0.0100013
671719.000000 5783964.500000 0.01
671719.000000 5784002.000000 0.01
671719.000000 5784039.500000 0.01
671719.000000 5784077.000000 0.01
671719.000000 5784114.500000 0.01
671719.000000 5784152.000000 0.01
671719.000000 5784189.500000 0.01
671719.000000 5784227.000000 0.010636
671719.000000 5784264.500000 0.0128949
671719.000000 5784302.000000 0.0117682
671719.000000 5784339.500000 0.01
671719.000000 5784377.000000 0.0102154
671719.000000 5784527.000000 0.01
671719.000000 5784602.000000 0.0110989
671719.000000 5784639.500000 0.0101163
671719.000000 5784677.000000 0.0100518
671719.000000 5784714.500000 0.0110798
671719.000000 5785164.500000 0.904205
671719.000000 5785239.500000 1.2665
671719.000000 5785314.500000 1.09957
671719.000000 5785389.500000 0.84624
671719.000000 5789627.000000 1.12196
671719.000000 5789664.500000 1.01292
671719.000000 5789702.000000 0.910001
671719.000000 5789739.500000 0.809485
671719.000000 5789777.000000 0.636421
671719.000000 5789814.500000 0.551078
671719.000000 5797764.500000 0.469789
671719.000000 5797914.500000 0.682371
671719.187500 5783769.500000 0.01
671719.437500 5790837.000000 2.28438
671719.500000 5789853.000000 0.523056
671719.562500 5783885.500000 0.01
671719.562500 5795351.000000 0.01
671720.000000 5784960.000000 0.0534174
671720.000000 5785000.000000 0.342031
671720.000000 5785180.000000 0.869996
671720.000000 5785260.000000 1.24785
671720.000000 5785400.000000 0.941982
671720.000000 5789800.000000 0.650802
671720.000000 5789892.000000 0.389412
671720.000000 5789980.000000 0.173695
671720.000000 5790000.000000 0.16592
671720.000000 5790020.000000 0.183416
671720.000000 5790100.000000 0.173969
671720.000000 5790140.000000 0.188748
671720.000000 5790180.000000 0.0315598
671720.000000 5790340.000000 0.0423548
671720.000000 5790360.000000 0.0100157
671720.000000 5790380.000000 0.01
671720.000000 5790420.000000 0.01
671720.000000 5790480.000000 0.0133726
671720.000000 5790520.000000 0.01
671720.000000 5790540.000000 0.0589201
671720.000000 5790660.000000 0.01
671720.000000 5790680.000000 0.01
671720.000000 5790700.000000 0.162158
671720.000000 5790720.000000 0.574657
671720.000000 5790740.000000 0.92215
671720.000000 5790760.000000 1.16924
671720.000000 5790800.000000 1.5556
671720.000000 5793780.000000 0.919855
671720.000000 5793820.000000 0.01
671720.000000 5795780.000000 0.850209
671720.000000 5796420.000000 0.427571
671720.000000 5796460.000000 0.22096
671720.000000 5797620.000000 0.286488
671720.000000 5797837.000000 0.535166
671720.000000 5798980.000000 0.0721184
671720.000000 5799060.000000 0.0974659
671720.312500 5784753.000000 0.0103162
671720.500000 5789931.000000 0.340606
671720.625000 5783810.500000 0.0110667
671720.750000 5784828.000000 0.0116937
671721.000000 5789969.500000 0.174895
671721.500000 5783847.500000 0.0107972
671721.500000 5790008.000000 0.212063
671721.625000 5791253.500000 8.91745
671722.000000 5790047.000000 0.261163
671722.500000 5785541.500000 1.22749
671722.500000 5790085.000000 0.154381
671722.562500 5789588.500000 1.15725
671722.812500 5785466.500000 0.975411
671722.937500 5796409.000000 0.407311
671723.000000 5790123.500000 0.23094
671724.125000 5790163.000000 0.298401
671724.250000 5790565.500000 0.011057
671725.250000 5784792.500000 0.0100064
671725.250000 5790202.000000 0.01
671725.750000 5790890.000000 2.78168
671726.000000 5795854.500000 1.09924
671726.062500 5784571.000000 0.0108435
671726.687500 5790239.000000 0.01
671727.500000 5784417.000000 0.0121578
671727.875000 5795538.000000 0.261006
671728.062500 5789552.500000 1.23886
671728.750000 5790278.000000 0.01
671729.187500 5784870.000000 0.0148193
671730.500000 5792827.000000 10.2003
671731.812500 5790947.500000 3.30505
671732.000000 5783690.500000 0.0105917
671732.000000 5790448.000000 0.117816
671732.062500 5790317.000000 0.0262281
671732.937500 5794144.500000 0.01
671737.062500 5790354.000000 0.160041
671738.437500 5789450.500000 1.24301
671739.937500 5789513.000000 1.23639
671740.000000 5785220.000000 1.16647
671740.000000 5785280.000000 1.18946
671740.000000 5785460.000000 0.913337
671740.000000 5785560.000000 1.04572
671740.000000 5789780.000000 0.757802
671740.000000 5789800.000000 0.616632
671740.000000 5790160.000000 0.0303258
671740.000000 5790180.000000 0.01
671740.000000 5790240.000000 0.01
671740.000000 5790260.000000 0.01
671740.000000 5790300.000000 0.131446
671740.000000 5790320.000000 0.0606312
671740.000000 5790340.000000 0.107935
671740.000000 5790360.000000 0.158824
671740.000000 5790400.000000 0.0531791
671740.000000 5790420.000000 0.115825
671740.000000 5790440.000000 0.150921
671740.000000 5790460.000000 0.182424
671740.000000 5790500.000000 0.182166
671740.000000 5790580.000000 0.0104456
671740.000000 5790660.000000 0.0960263
671740.000000 5790680.000000 0.323189
671740.000000 5790700.000000 0.782148
671740.000000 5790740.000000 1.24402
671740.000000 5790760.000000 1.46323
671740.000000 5790780.000000 1.36061
671740.000000 5790800.000000 2.21697
671740.000000 5790820.000000 2.19395
671740.000000 5793740.000000 2.45437
671740.000000 5793780.000000 0.955834
671740.000000 5793800.000000 0.116927
671740.000000 5793820.000000 0.01
671740.000000 5795360.000000 0.01
671740.000000 5796260.000000 1.0831
671740.000000 5796540.000000 0.0837153
671740.000000 5798780.000000 0.197685
671740.000000 5798900.000000 0.0691066
671740.250000 5796159.000000 3.41276
671740.625000 5790515.000000 0.222153
671740.687500 5791018.000000 3.6274
671740.875000 5783649.500000 0.0101265
671741.375000 5789351.000000 1.35772
671742.875000 5791339.000000 10.2158
671744.250000 5790389.500000 0.0938715
671745.812500 5783400.500000 0.01
671747.250000 5790475.500000 0.182081
671749.375000 5795449.500000 0.0507876
671749.875000 5791131.500000 8.51088
671750.500000 5790678.000000 0.625201
671750.875000 5791449.000000 13.3435
671751.062500 5790720.500000 1.03183
671751.312500 5790637.500000 0.01
671752.687500 5790763.500000 1.63592
671754.062500 5796327.000000 0.726597
671755.562500 5790422.500000 0.229088
671756.500000 5783829.500000 0.01
671756.500000 5783869.500000 0.01
671756.500000 5783908.000000 0.01
671756.500000 5783946.000000 0.01
671756.500000 5783983.000000 0.01
671756.500000 5784021.000000 0.01
671756.500000 5784058.000000 0.01
671756.500000 5784096.000000 0.01
671756.500000 5784133.000000 0.01
671756.500000 5784171.000000 0.01
671756.500000 5784208.000000 0.0106029
671756.500000 5784246.000000 0.0116387
671756.500000 5784283.000000 0.0110418
671756.500000 5784321.000000 0.01
671756.500000 5784358.000000 0.01
671756.500000 5784396.000000 0.0102116
671756.500000 5784508.000000 0.01
671756.500000 5784546.000000 0.0100012
671756.500000 5784583.000000 0.0100566
671756.500000 5784621.000000 0.0105731
671756.500000 5784658.000000 0.0101678
671756.500000 5784696.000000 0.0102682
671756.500000 5789646.000000 1.12078
671756.500000 5789683.000000 0.982827
671756.500000 5789721.000000 0.935824
671756.500000 5789758.000000 0.835685
671756.500000 5789796.000000 0.805622
671756.500000 5789833.000000 0.652434
671756.875000 5783791.000000 0.01
671757.000000 5784772.500000 0.0127265
671757.000000 5789872.000000 0.563186
671757.062500 5783751.000000 0.01
671757.500000 5789911.000000 0.422565
671757.500000 5790809.500000 2.28386
671757.562500 5784735.000000 0.0117002
671757.687500 5790597.000000 0.0105791
671757.750000 5789607.500000 1.15906
671758.000000 5789949.500000 0.348892
671758.500000 5789988.000000 0.308501
671758.812500 5783499.000000 0.0217365
671758.875000 5791559.000000 6.52558
671759.000000 5790027.000000 0.235917
671759.500000 5790065.500000 0.295731
671759.750000 5789571.500000 1.19735
671759.875000 5795947.500000 1.64164
671760.000000 5784920.000000 0.109436
671760.000000 5785220.000000 1.12369
671760.000000 5785460.000000 1.0054
671760.000000 5789780.000000 0.747049
671760.000000 5789800.000000 0.724127
671760.000000 5789820.000000 0.715903
671760.000000 5790104.000000 0.299446
671760.000000 5790160.000000 0.01
671760.000000 5790200.000000 0.01
671760.000000 5790240.000000 0.0118704
671760.000000 5790260.000000 0.278755
671760.000000 5790280.000000 0.320248
671760.000000 5790300.000000 0.478031
671760.000000 5790340.000000 0.303732
671760.000000 5790380.000000 0.179619
671760.000000 5790400.000000 0.209602
671760.000000 5790440.000000 0.251813
671760.000000 5790460.000000 0.250055
671760.000000 5790540.000000 0.351273
671760.000000 5790560.000000 0.158912
671760.000000 5790580.000000 0.011335
671760.000000 5790640.000000 0.01
671760.000000 5790660.000000 0.580602
671760.000000 5790680.000000 0.763334
671760.000000 5790700.000000 0.943811
671760.000000 5790740.000000 1.55785
671760.000000 5795780.000000 0.839241
671760.000000 5795840.000000 1.18183
671760.000000 5796300.000000 0.830125
671760.000000 5796420.000000 0.346614
671760.000000 5796540.000000 0.183733
671760.000000 5797440.000000 0.139378
671760.000000 5797520.000000 0.134206
671760.000000 5797560.000000 0.286294
671760.000000 5798900.000000 0.270024
671760.500000 5790142.000000 0.275195
671760.875000 5783713.000000 0.0100288
671761.625000 5790181.000000 0.01
671761.937500 5787781.500000 3.38286
671762.312500 5798384.500000 0.172676
671763.125000 5790218.500000 0.01
671763.437500 5784477.000000 0.01
671764.500000 5790256.000000 0.312057
671764.625000 5790857.500000 2.55699
671765.625000 5798545.500000 0.204638
671766.062500 5784441.000000 0.0104659
671766.187500 5789541.500000 1.23362
671766.687500 5790295.000000 0.619941
671766.750000 5797667.000000 0.37037
671766.875000 5791669.000000 10.8417
671768.250000 5790453.500000 0.25016
671770.250000 5790332.000000 0.389126
671770.625000 5797503.000000 0.0410417
671772.500000 5785641.500000 1.16996
671772.937500 5790560.000000 0.30024
671773.937500 5783680.500000 0.01
671774.500000 5783609.500000 0.0103353
671774.562500 5798700.000000 0.131756
671774.812500 5791779.000000 12.3045
671776.250000 5790909.000000 1.58465
671776.312500 5790366.500000 0.240569
671776.812500 5798851.500000 0.111423
671777.312500 5799003.500000 0.0600846
671778.062500 5797201.500000 0.0138435
671778.250000 5796618.500000 0.01
671778.562500 5796463.000000 0.329186
671780.000000 5784960.000000 0.305649
671780.000000 5785280.000000 1.09082
671780.000000 5785320.000000 0.980235
671780.000000 5785500.000000 0.908227
671780.000000 5785520.000000 1.02447
671780.000000 5785540.000000 1.13651
671780.000000 5785580.000000 1.25756
671780.000000 5789780.000000 0.937146
671780.000000 5789800.000000 0.81938
671780.000000 5789820.000000 0.777179
671780.000000 5790160.000000 0.0258316
671780.000000 5790180.000000 0.01
671780.000000 5790220.000000 0.0132848
671780.000000 5790240.000000 0.119351
671780.000000 5790380.000000 0.258129
671780.000000 5790420.000000 0.257368
671780.000000 5790520.000000 0.0406863
671780.000000 5790540.000000 0.0292794
671780.000000 5790560.000000 0.150156
671780.000000 5790580.000000 0.01
671780.000000 5790640.000000 0.69398
671780.000000 5790660.000000 1.04919
671780.000000 5790680.000000 1.0295
671780.000000 5790700.000000 1.07535
671780.000000 5790720.000000 1.38334
671780.000000 5790740.000000 1.78029
671780.000000 5793760.000000 1.49618
671780.000000 5793820.000000 0.105456
671780.000000 5795460.000000 0.0427511
671780.000000 5795480.000000 0.111893
671780.000000 5795781.000000 1.08016
671780.000000 5796240.000000 1.11331
671780.000000 5796480.000000 0.290452
671780.000000 5796500.000000 0.221602
671780.000000 5796580.000000 0.01102
671780.000000 5796600.000000 0.01
671780.000000 5798520.000000 0.140726
671780.000000 5798820.000000 0.16155
671780.937500 5783108.500000 0.01
671781.000000 5797352.000000 0.01
671781.750000 5797047.500000 0.0101461
671782.000000 5793616.000000 5.53235
671782.812500 5791889.000000 14.9315
671783.062500 5784822.500000 0.0111354
671783.250000 5790486.500000 0.321827
671783.687500 5796525.500000 0.181271
671784.312500 5790399.500000 0.300578
671784.375000 5786415.000000 1.56985
671785.000000 5790963.000000 2.57915
671785.937500 5796895.000000 0.01
671786.562500 5793997.000000 0.01
671786.750000 5793915.000000 0.01
671787.625000 5785949.000000 1.38248
671787.687500 5794068.500000 0.01
671789.125000 5785799.500000 1.28656
671789.187500 5786255.000000 1.57641
671790.000000 5790660.000000 1.12626
671790.062500 5789555.500000 1.24296
671790.187500 5790699.000000 1.08794
671790.375000 5790621.500000 0.01
671790.500000 5793832.500000 0.01
671790.562500 5796745.500000 0.01
671790.812500 5791999.000000 18.0267
671790.875000 5795691.000000 0.796401
671790.937500 5790740.000000 1.78634
671791.000000 5794667.000000 0.01
671791.250000 5798025.500000 0.65767
671791.500000 5786564.500000 1.46853
671791.625000 5784976.000000 0.308002
671791.625000 5793456.000000 6.81812
671791.625000 5798100.500000 0.40241
671791.812500 5784901.000000 0.0568994
671791.875000 5789586.500000 1.2588
671792.187500 5784412.500000 0.01
671792.250000 5794509.500000 0.0101827
671792.937500 5798178.500000 0.34879
671793.125000 5790589.500000 0.01
671793.312500 5794357.500000 0.0100024
671793.625000 5790431.500000 0.296905
671793.687500 5783734.500000 0.01
671793.687500 5783773.000000 0.01
671794.000000 5783812.500000 0.01
671794.000000 5783852.000000 0.01
671794.000000 5783889.500000 0.01
671794.000000 5783927.000000 0.01
671794.000000 5783964.500000 0.01
671794.000000 5784002.000000 0.01
671794.000000 5784039.500000 0.0104221
671794.000000 5784077.000000 0.0120353
671794.000000 5784114.500000 0.01
671794.000000 5784152.000000 0.01
671794.000000 5784189.500000 0.0100549
671794.000000 5784227.000000 0.01257
671794.000000 5784264.500000 0.010286
671794.000000 5784302.000000 0.01
671794.000000 5784339.500000 0.01
671794.000000 5784377.000000 0.01
671794.000000 5784452.000000 0.01
671794.000000 5784527.000000 0.01
671794.000000 5784564.500000 0.01
671794.000000 5784602.000000 0.0100716
671794.000000 5784639.500000 0.010444
671794.000000 5784677.000000 0.0100678
671794.000000 5785052.000000 0.427386
671794.000000 5785127.000000 0.728279
671794.000000 5785202.000000 1.1317
671794.000000 5785277.000000 1.05367
671794.000000 5785427.000000 0.853576
671794.000000 5786102.000000 1.51516
671794.000000 5789624.500000 1.22136
671794.000000 5789664.500000 1.11671
671794.000000 5789702.000000 1.06969
671794.000000 5789739.500000 0.965537
671794.000000 5789777.000000 0.925115
671794.000000 5789814.500000 0.847849
671794.000000 5789852.000000 0.674771
671794.000000 5793152.000000 9.5874
671794.000000 5793302.000000 8.15086
671794.000000 5797952.000000 0.62472
671794.000000 5799152.000000 0.0133929
671794.000000 5799302.000000 0.01
671794.000000 5799752.000000 0.0104514
671794.000000 5799902.000000 0.01
671794.500000 5789891.000000 0.543248
671794.500000 5790783.000000 2.21244
671794.562500 5783704.000000 0.01
671794.875000 5783268.000000 0.01
671795.000000 5789929.500000 0.421853
671795.187500 5784716.500000 0.0102408
671795.187500 5797874.500000 0.812528
671795.500000 5789968.000000 0.374514
671796.000000 5790007.000000 0.393607
671796.500000 5790045.500000 0.417577
671797.000000 5790084.000000 0.423915
671797.500000 5790122.000000 0.415368
671797.875000 5783645.500000 0.01
671798.062500 5790160.500000 0.227596
671798.312500 5784760.500000 0.01244
671798.812500 5792109.500000 16.9021
671798.875000 5798265.000000 0.38968
671799.000000 5799453.500000 0.0100003
671799.000000 5799604.500000 0.0105561
671799.250000 5791229.500000 8.97899
671799.500000 5790198.000000 0.01
671799.687500 5790828.000000 1.92216
671799.750000 5796235.000000 1.06438
671800.000000 5784495.000000 0.01
671800.000000 5785580.000000 1.22633
671800.000000 5789820.000000 0.890381
671800.000000 5789840.000000 0.749893
671800.000000 5790060.000000 0.354976
671800.000000 5790100.000000 0.319821
671800.000000 5790180.000000 0.0100477
671800.000000 5790220.000000 0.01
671800.000000 5790440.000000 0.263873
671800.000000 5790480.000000 0.0920907
671800.000000 5790520.000000 0.01
671800.000000 5790540.000000 0.0107967
671800.000000 5790560.000000 0.01
671800.000000 5790580.000000 0.01
671800.000000 5790600.000000 0.01
671800.000000 5790620.000000 0.150992
671800.000000 5790640.000000 1.1821
671800.000000 5790660.000000 1.21698
671800.000000 5790680.000000 1.26334
671800.000000 5793760.000000 1.48709
671800.000000 5793820.000000 0.0496151
671800.000000 5795420.000000 0.0175108
671800.000000 5795840.000000 1.4053
671800.000000 5797600.000000 0.303967
671800.000000 5798540.000000 0.226637
671800.000000 5798680.000000 0.158243
671800.187500 5797788.500000 0.483815
671800.937500 5783564.500000 0.015774
671801.437500 5790236.000000 0.29839
671801.750000 5793740.000000 1.82075
671801.812500 5785356.000000 0.892629
671802.000000 5795590.500000 0.396603
671802.250000 5790524.500000 0.01
671802.312500 5790460.000000 0.382258
671802.875000 5790273.500000 0.679125
671804.312500 5796041.000000 1.7229
671804.750000 5793016.500000 9.33134
671805.625000 5790310.500000 0.656823
671806.750000 5792219.500000 12.1725
671809.000000 5790345.500000 0.414615
671811.687500 5796401.500000 0.491665
671812.125000 5795846.500000 1.29477
671812.375000 5790873.500000 2.53453
671813.187500 5789514.500000 1.34906
671814.312500 5785512.000000 0.918203
671814.750000 5792329.500000 12.2254
671814.937500 5795494.500000 0.141479
671815.187500 5790379.000000 0.446006
671817.125000 5789564.500000 1.21065
671817.125000 5794226.000000 0.01
671817.500000 5783680.500000 0.01
671818.062500 5792909.000000 8.79106
671818.125000 5790566.000000 0.01
671820.000000 5784940.000000 0.145867
671820.000000 5785240.000000 1.07782
671820.000000 5785300.000000 1.09039
671820.000000 5789840.000000 0.734809
671820.000000 5789860.000000 0.721982
671820.000000 5790040.000000 0.4205
671820.000000 5790080.000000 0.215513
671820.000000 5790100.000000 0.179094
671820.000000 5790120.000000 0.331069
671820.000000 5790160.000000 0.0264061
671820.000000 5790180.000000 0.01
671820.000000 5790200.000000 0.01
671820.000000 5790220.000000 0.211525
671820.000000 5790420.000000 0.397425
671820.000000 5790440.000000 0.03751
671820.000000 5790460.000000 0.146641
671820.000000 5790480.000000 0.17124
671820.000000 5790500.000000 0.01
671820.000000 5790520.000000 0.01
671820.000000 5790540.000000 0.0295398
671820.000000 5790580.000000 0.01
671820.000000 5790600.000000 0.560091
671820.000000 5790620.000000 0.877952
671820.000000 5790640.000000 1.58769
671820.000000 5790660.000000 1.50797
671820.000000 5790680.000000 1.50515
671820.000000 5793840.000000 0.01
671820.000000 5795480.000000 0.163242
671820.000000 5795820.000000 1.23892
671820.000000 5796320.000000 0.780579
671820.000000 5796540.000000 0.171564
671820.000000 5797780.000000 0.404079
671820.000000 5798800.000000 0.127058
671820.000000 5798860.000000 0.0478175
671820.625000 5792837.000000 10.9322
671822.062500 5790411.000000 0.469291
671822.750000 5792439.500000 12.3787
671825.875000 5794823.500000 0.01
671826.750000 5790603.000000 0.85308
671827.500000 5790640.000000 1.66226
671827.812500 5790679.000000 1.5741
671828.312500 5783715.500000 0.01
671828.500000 5789599.500000 1.3393
671828.875000 5790719.000000 1.86413
671829.125000 5790444.000000 0.0166325
671829.187500 5792528.500000 12.2556
671830.562500 5783753.000000 0.01
671831.000000 5790760.000000 2.11223
671831.062500 5795397.500000 0.0109643
671831.312500 5783792.500000 0.01
671831.375000 5789641.500000 1.25828
671831.500000 5783831.500000 0.01
671831.500000 5783871.000000 0.01
671831.500000 5783908.000000 0.0100617
671831.500000 5783946.000000 0.01
671831.500000 5783983.000000 0.01
671831.500000 5784021.000000 0.01
671831.500000 5784058.000000 0.0170971
671831.500000 5784096.000000 0.0105872
671831.500000 5784133.000000 0.01
671831.500000 5784171.000000 0.01
671831.500000 5784208.000000 0.0105203
671831.500000 5784246.000000 0.0102925
671831.500000 5784283.000000 0.01
671831.500000 5784396.000000 0.01
671831.500000 5784433.000000 0.01
671831.500000 5784471.000000 0.01
671831.500000 5784508.000000 0.01
671831.500000 5784546.000000 0.01
671831.500000 5784583.000000 0.01
671831.500000 5784621.000000 0.01
671831.500000 5789721.000000 1.03846
671831.500000 5789758.000000 0.933405
671831.500000 5789796.000000 0.856821
671831.500000 5789833.000000 0.816059
671831.750000 5787909.000000 2.92379
671831.750000 5789681.500000 1.16647
671831.937500 5783610.000000 0.0103607
671832.000000 5784359.000000 0.01
671832.250000 5789871.500000 0.708894
671832.437500 5784659.000000 0.01
671832.750000 5789910.000000 0.564155
671833.250000 5784696.500000 0.0100243
671833.250000 5789949.000000 0.461601
671833.750000 5789988.000000 0.47071
671833.937500 5784735.000000 0.010712
671834.375000 5790026.500000 0.566664
671834.375000 5790803.000000 2.237
671834.875000 5790065.000000 0.0888085
671835.062500 5792618.000000 13.401
671835.437500 5790103.000000 0.01
671836.000000 5790141.500000 0.30361
671836.187500 5794976.000000 0.01
671836.750000 5791021.500000 5.80378
671837.062500 5792695.000000 12.8615
671837.125000 5790179.500000 0.01
671838.500000 5790217.000000 0.303793
671838.875000 5795120.000000 0.01
671839.000000 5795272.000000 0.01
671839.875000 5790485.000000 0.01537
671840.000000 5784920.000000 0.208907
671840.000000 5785200.000000 1.06882
671840.000000 5785260.000000 1.12754
671840.000000 5785280.000000 1.02588
671840.000000 5789840.000000 0.776814
671840.000000 5789920.000000 0.557163
671840.000000 5789940.000000 0.486613
671840.000000 5790120.000000 0.0288869
671840.000000 5790160.000000 0.01
671840.000000 5790200.000000 0.0295488
671840.000000 5790254.000000 0.59532
671840.000000 5790420.000000 0.495291
671840.000000 5790440.000000 0.114979
671840.000000 5790460.000000 0.0128626
671840.000000 5790480.000000 0.01
671840.000000 5790520.000000 0.0177298
671840.000000 5790560.000000 0.18801
671840.000000 5790580.000000 0.517235
671840.000000 5790600.000000 0.899777
671840.000000 5790620.000000 1.34733
671840.000000 5795500.000000 0.262574
671840.000000 5795780.000000 1.09028
671840.000000 5796220.000000 1.29157
671840.000000 5796280.000000 0.862893
671840.000000 5796580.000000 0.01
671840.000000 5797800.000000 0.34887
671840.000000 5798280.000000 0.148428
671841.062500 5790842.500000 2.53381
671841.375000 5790291.500000 0.712377
671842.187500 5790924.000000 3.17715
671843.625000 5790325.500000 0.513017
671844.312500 5783443.000000 0.0148961
671846.687500 5792769.500000 11.2251
671846.812500 5784326.500000 0.01
671847.125000 5783368.500000 0.0104095
671847.187500 5790359.000000 0.547924
671847.562500 5794117.500000 0.01
671848.250000 5796478.500000 0.248945
671850.125000 5783651.000000 0.01
671852.312500 5790392.000000 0.700183
671853.812500 5790875.500000 2.56531
671854.062500 5790537.000000 0.565358
671855.500000 5795745.500000 0.786457
671856.562500 5789411.000000 1.37026
671857.125000 5790423.000000 0.684703
671857.750000 5791128.500000 9.31994
671858.312500 5784295.500000 0.01
671858.500000 5783514.500000 0.0213215
671858.937500 5795928.000000 1.82754
671859.187500 5796319.000000 0.845644
671859.625000 5796123.000000 3.28674
671860.000000 5784880.000000 0.0374634
671860.000000 5784920.000000 0.100002
671860.000000 5785180.000000 0.97088
671860.000000 5789840.000000 0.900091
671860.000000 5789860.000000 0.840977
671860.000000 5789880.000000 0.630488
671860.000000 5789900.000000 0.582329
671860.000000 5789920.000000 0.479313
671860.000000 5789960.000000 0.585665
671860.000000 5790040.000000 0.62767
671860.000000 5790060.000000 0.438208
671860.000000 5790120.000000 0.01
671860.000000 5790140.000000 0.01
671860.000000 5790160.000000 0.01
671860.000000 5790180.000000 0.01
671860.000000 5790200.000000 0.299817
671860.000000 5790440.000000 0.707107
671860.000000 5790460.000000 0.620193
671860.000000 5790500.000000 0.714864
671860.000000 5790560.000000 0.905626
671860.000000 5790600.000000 1.00732
671860.000000 5793780.000000 0.499913
671860.000000 5793800.000000 0.209949
671860.000000 5793860.000000 0.01
671860.000000 5795520.000000 0.29226
671860.000000 5795820.000000 1.22457
671860.000000 5797780.000000 0.444774
671860.000000 5798340.000000 0.245264
671860.000000 5798380.000000 0.118974
671860.437500 5789566.000000 1.40094
671861.000000 5790451.000000 0.697235
671861.125000 5796559.500000 0.127348
671861.437500 5783690.500000 0.01
671861.500000 5784074.000000 0.0210557
671862.000000 5790580.500000 0.993038
671862.687500 5794035.000000 0.01
671863.000000 5784782.000000 0.0114022
671864.500000 5793873.500000 0.01
671864.562500 5793953.500000 0.01
671865.062500 5790620.000000 1.41953
671865.375000 5790659.000000 1.77812
671866.375000 5790698.500000 1.80893
671866.500000 5784863.000000 0.0105164
671866.625000 5793794.000000 0.778394
671867.562500 5783732.000000 0.01
671867.562500 5784264.000000 0.01
671867.625000 5789614.500000 1.25346
671867.875000 5790738.000000 2.16022
671868.687500 5783772.000000 0.0114377
671869.000000 5783811.000000 0.011855
671869.000000 5783850.000000 0.01
671869.000000 5783889.500000 0.01
671869.000000 5783927.000000 0.01
671869.000000 5783964.500000 0.01
671869.000000 5784002.000000 0.01
671869.000000 5784039.500000 0.0103533
671869.000000 5784339.500000 0.01
671869.000000 5784377.000000 0.01
671869.000000 5784414.500000 0.010037
671869.000000 5784452.000000 0.01
671869.000000 5784489.500000 0.01
671869.000000 5784527.000000 0.01
671869.000000 5784564.500000 0.01
671869.000000 5784602.000000 0.01
671869.000000 5784677.000000 0.01
671869.000000 5784939.500000 0.188582
671869.000000 5785014.500000 0.432008
671869.000000 5785314.500000 1.08708
671869.000000 5789739.500000 0.972174
671869.000000 5789777.000000 0.978652
671869.000000 5789814.500000 0.869003
671869.750000 5789853.000000 0.893724
671869.875000 5789658.000000 1.21173
671870.250000 5789698.500000 1.07127
671870.500000 5789891.000000 0.646189
671870.875000 5790780.000000 2.28691
671871.000000 5789930.000000 0.464577
671871.437500 5798215.500000 0.120006
671871.500000 5785091.000000 0.574379
671871.500000 5789968.500000 0.639762
671871.625000 5785166.000000 0.910703
671872.125000 5790007.000000 0.603083
671872.375000 5785241.000000 1.17893
671872.812500 5784227.500000 0.01
671872.812500 5790046.000000 0.733228
671872.875000 5784641.500000 0.01
671872.875000 5798064.000000 0.0927248
671873.250000 5797989.000000 0.537706
671873.375000 5790084.000000 0.060598
671873.812500 5797912.500000 0.636524
671873.875000 5790122.500000 0.01
671873.937500 5797837.000000 0.416664
671873.937500 5798141.500000 0.363881
671874.500000 5790820.000000 2.46118
671875.000000 5790160.500000 0.01
671875.375000 5784190.500000 0.01
671875.750000 5790853.000000 2.65017
671876.000000 5795641.500000 0.642173
671876.125000 5790198.500000 0.454319
671876.875000 5789244.500000 1.44278
671877.562500 5790236.000000 0.723763
671877.625000 5791203.500000 9.13046
671878.125000 5784718.500000 0.0109207
671878.750000 5790308.000000 0.711031
671879.000000 5790273.000000 0.690085
671879.750000 5784152.000000 0.01
671880.000000 5784880.000000 0.0368913
671880.000000 5784920.000000 0.19554
671880.000000 5785180.000000 0.962493
671880.000000 5785260.000000 1.18272
671880.000000 5785280.000000 1.15836
671880.000000 5789880.000000 0.684676
671880.000000 5789900.000000 0.630934
671880.000000 5789920.000000 0.546261
671880.000000 5789960.000000 0.575697
671880.000000 5789980.000000 0.634312
671880.000000 5790000.000000 0.613628
671880.000000 5790060.000000 0.423449
671880.000000 5790120.000000 0.01
671880.000000 5790180.000000 0.0169861
671880.000000 5790500.000000 0.932523
671880.000000 5790520.000000 1.00275
671880.000000 5790540.000000 1.14959
671880.000000 5790580.000000 1.18537
671880.000000 5790600.000000 1.43487
671880.000000 5793800.000000 0.174406
671880.000000 5793840.000000 0.0105708
671880.000000 5793860.000000 0.01
671880.000000 5795400.000000 0.01
671880.000000 5795460.000000 0.107074
671880.000000 5795760.000000 0.848442
671880.000000 5797620.000000 0.0336402
671880.000000 5797920.000000 0.58803
671880.000000 5798000.000000 0.401027
671880.000000 5798120.000000 0.0577273
671880.000000 5798460.000000 0.183436
671880.000000 5798740.000000 0.0995453
671880.625000 5790342.000000 0.74536
671884.000000 5784113.000000 0.01
671884.562500 5790375.000000 0.832038
671885.250000 5795542.000000 0.413822
671888.125000 5790406.000000 1.04363
671888.625000 5790467.000000 1.10169
671889.312500 5790435.000000 1.21861
671890.375000 5783620.500000 0.01
671890.500000 5783575.500000 0.0118911
671891.937500 5779207.000000 0.0110517
671892.875000 5795458.000000 0.11637
671893.562500 5784053.000000 0.0104076
671897.250000 5784019.500000 0.0105622
671897.750000 5783788.000000 0.0222906
671898.875000 5790884.500000 3.3833
671899.312500 5783664.500000 0.01
671899.312500 5783745.500000 0.013947
671899.875000 5790507.500000 1.31806
671900.000000 5785220.000000 1.10176
671900.000000 5785300.000000 0.991603
671900.000000 5789860.000000 0.878238
671900.000000 5789880.000000 0.753472
671900.000000 5789900.000000 0.642196
671900.000000 5789940.000000 0.717835
671900.000000 5789960.000000 0.713174
671900.000000 5789980.000000 0.677869
671900.000000 5790000.000000 0.675345
671900.000000 5790020.000000 0.483082
671900.000000 5790080.000000 0.384704
671900.000000 5790100.000000 0.167951
671900.000000 5790120.000000 0.0596158
671900.000000 5790180.000000 0.01
671900.000000 5790200.000000 0.574845
671900.000000 5790420.000000 1.17148
671900.000000 5790440.000000 1.22914
671900.000000 5790480.000000 1.23491
671900.000000 5790500.000000 1.31613
671900.000000 5790540.000000 1.35533
671900.000000 5790580.000000 1.56581
671900.000000 5793720.000000 3.67856
671900.000000 5793800.000000 0.01
671900.000000 5795520.000000 0.145646
671900.000000 5797820.000000 0.383945
671900.000000 5797920.000000 0.550327
671900.000000 5797980.000000 0.262606
671900.000000 5798200.000000 0.0793819
671900.000000 5798380.000000 0.0734274
671900.000000 5798880.000000 0.074052
671900.312500 5783981.500000 0.0103452
671902.250000 5790557.500000 1.45676
671903.875000 5790599.000000 1.52168
671903.875000 5790639.500000 1.69789
671904.125000 5790678.000000 1.95136
671904.250000 5783945.500000 0.01
671904.562500 5783169.000000 0.01
671904.750000 5783707.500000 0.01108
671904.937500 5782712.000000 0.0110651
671905.000000 5789584.000000 1.32097
671905.000000 5791293.000000 10.1192
671905.250000 5790718.000000 2.22879
671905.812500 5796408.000000 0.429637
671906.500000 5784133.000000 0.01
671906.500000 5784171.000000 0.01
671906.500000 5784208.000000 0.01
671906.500000 5784246.000000 0.01
671906.500000 5784283.000000 0.01
671906.500000 5784321.000000 0.01
671906.500000 5784358.000000 0.01
671906.500000 5784396.000000 0.0105295
671906.500000 5784433.000000 0.0108813
671906.500000 5784471.000000 0.01
671906.500000 5784621.000000 0.01
671906.500000 5789796.000000 0.947259
671907.250000 5789834.000000 0.9455
671907.562500 5789757.000000 0.979251
671907.687500 5784584.000000 0.01
671907.750000 5784509.000000 0.01
671907.750000 5784546.500000 0.01
671907.812500 5790758.500000 2.26869
671908.000000 5789872.000000 0.880706
671908.750000 5789910.500000 0.751009
671909.000000 5789716.500000 1.09543
671909.250000 5783908.000000 0.01
671909.250000 5789949.000000 0.622363
671909.562500 5779453.500000 0.0111842
671909.937500 5789988.000000 0.69889
671910.437500 5789674.500000 1.18408
671910.625000 5790026.500000 0.466431
671910.687500 5789629.500000 1.23812
671910.750000 5792847.000000 9.99134
671911.250000 5790065.000000 0.364207
671911.375000 5790799.500000 2.50431
671911.750000 5790103.500000 0.263242
671912.250000 5795816.000000 1.11436
671912.875000 5790141.500000 0.01
671913.187500 5784094.500000 0.0165033
671913.500000 5790841.000000 2.60545
671913.937500 5796008.500000 2.01098
671914.000000 5790179.500000 0.0102419
671914.437500 5783870.000000 0.01
671914.562500 5796214.000000 1.37442
671915.125000 5790217.500000 0.519608
671915.125000 5792889.500000 9.82888
671915.625000 5791407.000000 12.9932
671916.125000 5790324.500000 0.665379
671916.375000 5790289.500000 0.8819
671916.562500 5790255.000000 0.901985
671917.937500 5788403.500000 1.69614
671918.000000 5787579.000000 2.41508
671918.375000 5788716.500000 1.79653
671918.375000 5790358.500000 0.856064
671919.000000 5783830.000000 0.0101876
671919.500000 5790389.500000 0.916657
671919.562500 5783327.000000 0.0121353
671919.875000 5785415.000000 0.5788
671920.000000 5785200.000000 1.13
671920.000000 5785380.000000 0.776625
671920.000000 5785600.000000 0.778269
671920.000000 5790000.000000 0.599431
671920.000000 5790020.000000 0.469269
671920.000000 5790140.000000 0.01
671920.000000 5790160.000000 0.01
671920.000000 5790200.000000 0.485502
671920.000000 5790440.000000 1.21526
671920.000000 5790460.000000 1.27205
671920.000000 5793820.000000 0.0113967
671920.000000 5795480.000000 0.214088
671920.000000 5795540.000000 0.377537
671920.000000 5795780.000000 0.961807
671920.000000 5796300.000000 0.802073
671920.000000 5796540.000000 0.01
671920.000000 5796620.000000 0.0196341
671920.000000 5796640.000000 0.01
671920.000000 5797520.000000 0.0100913
671920.000000 5797600.000000 0.0100036
671920.000000 5797880.000000 0.214495
671920.000000 5797960.000000 0.230627
671920.000000 5798040.000000 0.013014
671920.000000 5798060.000000 0.116168
